ply
format ascii 1.0
comment Created by Open3D
element vertex 822
property double x
property double y
property double z
property double nx
property double ny
property double nz
end_header
0.0507313 0.0500501 0.564253 -0.0993254 0.0336473 0.994486
0.0513856 0.0500553 0.564308 -0.0958674 0.0329551 0.994848
0.0520366 0.0500571 0.56437 -0.0952245 0.032715 0.994918
0.0526823 0.0500538 0.564433 -0.0968485 0.0347028 0.994694
0.0533484 0.0500698 0.564495 -0.0994211 0.0376906 0.994331
0.0540022 0.050074 0.564564 -0.104484 0.0366766 0.99385
0.0546496 0.0500722 0.564634 -0.10909 0.0374859 0.993325
0.0553191 0.0500905 0.564712 -0.110978 0.0441771 0.992841
0.0559729 0.0500943 0.564795 -0.110187 0.0466907 0.992814
0.0566134 0.0500863 0.564875 -0.107891 0.0432715 0.993221
0.0572922 0.0501118 0.564951 -0.101561 0.0511265 0.993515
0.0579438 0.0501134 0.565012 -0.0913743 0.0478833 0.994665
0.0585907 0.0501109 0.565071 -0.0777119 0.0551213 0.995451
0.0592461 0.0501156 0.565115 -0.0634497 0.0680082 0.995665
0.0599094 0.0501268 0.565154 -0.0187864 0.100064 0.994804
0.0605634 0.0501301 0.565178 -0.0041197 0.1486 0.988889
0.0612195 0.050135 0.565208 -0.0339526 0.164473 0.985797
0.0618938 0.0501546 0.56528 -0.0829566 0.18754 0.978748
0.0625351 0.0501473 0.56534 -0.110228 0.205762 0.972374
0.0631854 0.0501473 0.565368 -0.155193 0.219975 0.963082
0.0638567 0.0501639 0.565458 -0.117471 0.248022 0.961606
0.0645165 0.050171 0.565571 -0.11103 0.224919 0.968031
0.0651817 0.0501823 0.565649 -0.0731542 0.211415 0.974655
0.0658427 0.0501901 0.565671 -0.0763696 0.211021 0.974494
0.0664923 0.0501892 0.565737 0.0452737 -0.153194 -0.987159
0.0670274 0.0501027 0.565643 0.0284912 -0.187076 -0.981932
0.0678303 0.0502161 0.565848 0.0318561 -0.190863 -0.9811
0.0691193 0.0502064 0.565938 0.0346363 -0.234749 -0.971439
-0.0406856 0.0497867 0.554336 0.104299 -0.0204855 -0.994335
-0.0400631 0.0498052 0.554392 -0.107234 0.0221883 0.993986
-0.0394299 0.0498107 0.554446 -0.109987 0.021853 0.993693
-0.0388 0.0498206 0.554527 -0.111576 0.026839 0.993393
-0.0381671 0.049827 0.554612 -0.114116 0.0303521 0.993004
-0.0375342 0.0498336 0.554683 -0.111929 0.0286555 0.993303
-0.0369041 0.0498443 0.554751 -0.103731 0.0252353 0.994285
-0.0362568 0.0498316 0.554812 -0.0810032 0.0153816 0.996595
-0.0356283 0.0498448 0.554871 -0.0496579 0.0044142 0.998757
-0.0349955 0.0498523 0.554908 -0.0130369 -0.00928152 0.999872
-0.0343637 0.0498615 0.554904 0.0173492 -0.0218846 0.99961
-0.0337202 0.049854 0.55485 0.0486288 -0.0286938 0.998405
-0.0330972 0.0498769 0.554825 0.0623258 -0.0399339 0.997257
-0.0323828 0.0497602 0.554709 -0.0746975 0.0479577 -0.996052
0.0149289 0.0503429 0.560485 0.0712574 -0.0195655 -0.997266
0.015576 0.0503513 0.560526 -0.0733228 0.0216307 0.997074
0.0162229 0.0503585 0.560569 -0.0772905 0.026227 0.996664
0.0168729 0.0503745 0.560622 -0.0838612 0.0293202 0.996046
0.017515 0.0503665 0.560682 -0.0889495 0.030167 0.995579
0.0181616 0.0503716 0.560743 -0.0907884 0.028612 0.995459
0.0188088 0.0503779 0.560801 -0.0880204 0.0234987 0.995841
0.0194597 0.0503934 0.560858 -0.0823526 0.0170108 0.996458
0.0201053 0.0503948 0.560912 -0.0756855 0.00578746 0.997115
0.0207533 0.0504016 0.560959 -0.0723218 -0.00829673 0.997347
0.0213998 0.0504046 0.561003 -0.0730011 -0.0173589 0.997181
0.0220469 0.0504087 0.561051 -0.0772339 -0.0270326 0.996646
0.0226886 0.0504008 0.561085 0.0816545 0.0310911 -0.996176
0.0350426 0.0505378 0.562585 0.107418 -0.0257719 -0.99388
0.0356893 0.0505373 0.562655 0.105666 -0.0265368 -0.994047
0.0363485 0.0505543 0.562723 0.103061 -0.0274322 -0.994297
0.0370022 0.0505634 0.562798 0.103125 -0.0275782 -0.994286
0.0376487 0.0505622 0.562861 0.105718 -0.0295603 -0.993957
0.0383026 0.050571 0.562934 0.108168 -0.0311928 -0.993643
0.0389542 0.0505764 0.563 -0.111247 0.0359816 0.993141
0.0396089 0.0505857 0.563083 -0.111091 0.0404122 0.992988
0.0402598 0.0505899 0.563155 -0.111587 0.0422638 0.992855
0.040926 0.0506129 0.563229 -0.106925 0.0447092 0.993261
0.0415636 0.0506002 0.563293 -0.102605 0.0463409 0.993642
0.0422204 0.050611 0.563364 -0.0992865 0.0456161 0.994013
0.0428666 0.0506091 0.563423 -0.097383 0.0450941 0.994225
0.0435297 0.0506267 0.563487 -0.0977034 0.041344 0.994356
0.0441836 0.0506334 0.563546 -0.097638 0.0389629 0.994459
0.0448393 0.0506419 0.563612 -0.0967495 0.0380827 0.99458
0.0454877 0.050642 0.563674 -0.0969852 0.0356498 0.994647
0.0461365 0.0506426 0.563741 -0.0994855 0.0353314 0.994412
0.0467869 0.0506449 0.563802 -0.10213 0.035108 0.994151
0.047442 0.0506521 0.563874 -0.104578 0.0364347 0.993849
0.0481007 0.0506629 0.563947 -0.106609 0.0371061 0.993608
0.0487546 0.0506684 0.564019 -0.107502 0.0370794 0.993513
0.0494221 0.0506878 0.564087 -0.106733 0.0375512 0.993578
0.0500591 0.0506757 0.564164 -0.104067 0.0364879 0.993901
0.0507135 0.0506814 0.564232 -0.100406 0.0358284 0.994301
0.0513764 0.0506953 0.564289 -0.0965012 0.0349302 0.99472
0.0520416 0.0507111 0.564346 -0.0929991 0.0388869 0.994907
0.0526821 0.0507027 0.564414 -0.0940954 0.0394119 0.994783
0.053334 0.0507054 0.564473 -0.0973633 0.0429496 0.994322
0.0540032 0.0507242 0.564541 -0.0995765 0.0556545 0.993472
0.0546507 0.0507226 0.564612 -0.104572 0.0526023 0.993125
0.0553062 0.0507282 0.564694 -0.107398 0.0568896 0.992587
0.0559619 0.0507339 0.564768 -0.108041 0.0595847 0.992359
0.0566226 0.050744 0.564841 -0.105588 0.0659966 0.992217
0.0572763 0.0507476 0.564911 -0.096861 0.0766619 0.992341
0.0579407 0.0507605 0.564986 -0.0863718 0.0843969 0.992682
0.0585872 0.0507576 0.56503 -0.0701722 0.0894443 0.993517
0.0592536 0.0507719 0.565069 -0.0473209 0.0989744 0.993964
0.0599004 0.0507692 0.565095 0.0196773 0.15373 0.987917
0.060553 0.0507714 0.565075 0.0443337 0.176663 0.983272
0.0612283 0.0507925 0.565104 -0.0161979 0.173356 0.984726
0.0615934 0.0505585 0.564572 -0.0158667 0.197608 0.980153
0.0622405 0.0505583 0.56462 0.055617 -0.222477 -0.97335
0.0632033 0.050812 0.565312 0.10112 -0.275665 -0.95592
0.0638903 0.0508411 0.565403 0.146206 -0.296054 -0.943915
0.0645109 0.0508173 0.565486 0.0913852 -0.273951 -0.957392
0.0650354 0.050719 0.565396 0.0797604 -0.27662 -0.957664
0.0658579 0.0508527 0.565622 0.0794672 -0.252159 -0.964417
0.0664902 0.0508384 0.565634 0.0638736 -0.210073 -0.975597
0.0668254 0.0505994 0.565168 0.0705011 -0.213234 -0.974454
-0.0406824 0.0504201 0.554334 0.10154 -0.0196302 -0.994638
-0.0400513 0.0504279 0.554385 0.103425 -0.0212416 -0.99441
-0.0394279 0.0504459 0.554438 -0.106143 0.0223224 0.9941
-0.0387981 0.050456 0.554509 -0.107691 0.0239569 0.993896
-0.038159 0.0504542 0.554585 -0.114424 0.0294959 0.992994
-0.0375326 0.0504694 0.554662 -0.113741 0.0292164 0.993081
-0.0369007 0.0504777 0.554734 -0.108295 0.0265043 0.993765
-0.036265 0.0504809 0.554807 -0.0956954 0.0193759 0.995222
-0.0356275 0.0504817 0.554864 -0.0701154 0.00908745 0.997497
-0.0349987 0.0504951 0.554914 -0.0278167 -0.00592715 0.999595
-0.0343601 0.0504947 0.554922 0.000509833 -0.0173026 0.99985
-0.0337232 0.0504966 0.55489 0.0363267 -0.0342748 0.998752
-0.0330891 0.050503 0.554868 0.0601116 -0.0420853 0.997304
-0.0323875 0.0504045 0.554775 -0.0671575 0.0460026 -0.996681
0.0149307 0.0509936 0.560469 0.068517 -0.0212076 -0.997425
0.0155746 0.0509913 0.56051 -0.0710843 0.0245734 0.997168
0.0162235 0.0510052 0.560545 -0.0731661 0.0263046 0.996973
0.0168722 0.0510172 0.560595 -0.082059 0.0292058 0.996199
0.017515 0.0510112 0.56066 -0.0902693 0.029401 0.995483
0.0181621 0.0510178 0.560725 -0.0946004 0.0262693 0.995169
0.0188095 0.0510249 0.560782 -0.0939716 0.0230708 0.995308
0.0194576 0.0510331 0.560848 -0.0891481 0.017468 0.995865
0.0201039 0.0510361 0.560909 -0.0853695 0.00763847 0.99632
0.0207549 0.0510507 0.560961 -0.0833279 0.00132551 0.996521
0.0213997 0.0510495 0.561004 -0.0825668 -0.0101338 0.996534
0.0220414 0.0510413 0.561082 -0.0852954 -0.017638 0.9962
0.0226789 0.0510242 0.561136 0.0911407 0.0196733 -0.995644
0.0233605 0.0511043 0.561198 0.0927777 0.0200064 -0.995486
0.0330953 0.0511748 0.562347 0.116992 -0.0269339 -0.992768
0.03374 0.0511716 0.562429 0.114616 -0.0276422 -0.993025
0.0343906 0.0511772 0.562506 0.111175 -0.0274 -0.993423
0.0350479 0.0511924 0.56258 0.107867 -0.0282294 -0.993764
0.0357081 0.0512113 0.562645 -0.104389 0.0287519 0.994121
0.0363585 0.0512157 0.562705 -0.10251 0.0280954 0.994335
0.0369961 0.0512022 0.562775 -0.10246 0.0280872 0.994341
0.0376459 0.0512057 0.562847 -0.104742 0.0292968 0.994068
0.0383043 0.0512206 0.56291 -0.106939 0.0307491 0.99379
0.0389571 0.0512277 0.562979 -0.109344 0.0321324 0.993484
0.0396054 0.0512288 0.563058 -0.109703 0.0371677 0.993269
0.040253 0.0512288 0.563128 -0.108925 0.0409566 0.993206
0.0409141 0.0512459 0.56319 -0.10625 0.0426049 0.993426
0.0415681 0.0512536 0.563257 -0.10343 0.04078 0.9938
0.0422195 0.0512579 0.56333 -0.100746 0.041578 0.994043
0.0428745 0.0512663 0.563396 -0.0998244 0.0387679 0.99425
0.0435229 0.0512668 0.563457 -0.0990311 0.0383079 0.994347
0.0441862 0.0512846 0.563526 -0.0994013 0.0354734 0.994415
0.0448226 0.0512711 0.563592 -0.098862 0.0348004 0.994492
0.0454823 0.0512842 0.563656 -0.0994577 0.0312643 0.994551
0.0461354 0.0512896 0.563721 -0.0997246 0.0298082 0.994568
0.0467893 0.0512958 0.563789 -0.101309 0.0305009 0.994387
0.0474508 0.05131 0.563855 -0.10342 0.0323826 0.99411
0.0480968 0.0513072 0.563919 -0.104766 0.0341186 0.993912
0.0487521 0.0513144 0.56399 -0.105914 0.03671 0.993697
0.0494093 0.0513233 0.564061 -0.106455 0.0390996 0.993548
0.0500678 0.0513333 0.564133 -0.104964 0.0414713 0.993611
0.0507149 0.0513316 0.564207 -0.10047 0.0412453 0.994085
0.0513701 0.051338 0.564275 -0.0956935 0.0461101 0.994342
0.0520333 0.0513521 0.564333 -0.0911082 0.0514127 0.994513
0.052685 0.0513546 0.564399 -0.0872942 0.0575988 0.994516
0.0533344 0.0513549 0.564467 -0.0900199 0.0633329 0.993924
0.0539895 0.0513606 0.564524 -0.094978 0.0709728 0.992946
0.05466 0.0513806 0.564586 -0.100172 0.0820608 0.99158
0.0552938 0.0513661 0.564664 -0.0999779 0.0969183 0.990258
0.0559652 0.0513864 0.564728 -0.105139 0.0946271 0.989945
0.056627 0.0513975 0.564785 -0.101981 0.106342 0.989086
0.0572782 0.051399 0.564845 -0.0848468 0.132014 0.98761
0.0579493 0.0514179 0.564913 -0.0845323 0.137577 0.986877
0.0585905 0.0514103 0.564948 -0.0563213 0.110584 0.99227
0.0592582 0.0514259 0.565002 -0.00416131 0.157611 0.987492
0.0598975 0.0514166 0.565007 0.0359782 0.163431 0.985899
0.0605715 0.0514371 0.565004 0.0546465 0.184749 0.981265
0.0612636 0.0514724 0.565042 -0.02258 -0.221353 -0.974932
0.063068 0.0513523 0.564899 0.0391335 -0.499806 -0.865253
0.0636569 0.0513038 0.564735 0.0956874 -0.50309 -0.85892
-0.0400619 0.0510787 0.55438 0.0967165 -0.0135443 -0.99522
-0.0394199 0.0510731 0.554433 -0.102799 0.0199283 0.994503
-0.0387881 0.0510806 0.55449 -0.107744 0.023188 0.993908
-0.0381653 0.0511003 0.55456 -0.109411 0.0256843 0.993665
-0.0375325 0.0511072 0.554636 -0.113378 0.0276828 0.993166
-0.0368943 0.0511068 0.554717 -0.112839 0.0263339 0.993264
-0.0362649 0.0511189 0.554792 -0.0992829 0.0208724 0.99484
-0.0356378 0.0511346 0.554852 -0.0816995 0.0155618 0.996536
-0.0350066 0.0511449 0.554918 -0.0480585 0.00419192 0.998836
-0.0343636 0.051138 0.554935 -0.0117332 -0.00912733 0.99989
-0.0337235 0.0511353 0.554912 0.0296168 -0.0287274 0.999148
-0.03309 0.0511427 0.554886 0.0449095 -0.0367831 0.998314
-0.0323975 0.0510574 0.554783 -0.0556192 0.0423924 -0.997552
0.0149297 0.0516346 0.560464 0.0648866 -0.0214535 -0.997662
0.0155736 0.0516328 0.5605 -0.0694165 0.0252585 0.997268
0.0162203 0.0516398 0.560533 -0.0718366 0.0250999 0.997101
0.0168711 0.0516587 0.56058 -0.0807591 0.0269034 0.996371
0.0175106 0.0516431 0.560641 -0.090553 0.0267482 0.995532
0.018159 0.0516539 0.560706 -0.0971204 0.0250742 0.994957
0.0188095 0.0516697 0.56077 -0.0982597 0.0215663 0.994927
0.0194565 0.0516752 0.560831 -0.0951177 0.0158074 0.995341
0.0201029 0.0516788 0.560904 -0.0914257 0.00897761 0.995771
0.0207491 0.0516816 0.560957 -0.0910921 0.00482709 0.995831
0.021395 0.0516835 0.561012 -0.0904796 -0.00534692 0.995884
0.0220452 0.0516954 0.561078 -0.0952786 -0.011943 0.995379
0.0226837 0.0516801 0.561144 -0.0970265 -0.0150168 0.995169
0.0233435 0.0517126 0.561206 0.0945929 0.0123134 -0.99544
0.0240169 0.0517728 0.561278 0.0902407 0.0108752 -0.995861
0.0304836 0.0517803 0.562015 0.115738 -0.0216239 -0.993044
0.0311329 0.0517852 0.562093 0.116139 -0.0242027 -0.992938
0.031789 0.0518011 0.562173 0.118244 -0.0254657 -0.992658
0.0324351 0.0518004 0.562247 0.118983 -0.0273439 -0.99252
0.0330896 0.0518127 0.562331 0.11822 -0.0279524 -0.992594
0.0337401 0.0518185 0.562416 -0.115802 0.0292184 0.992843
0.0343913 0.0518251 0.562489 -0.112172 0.0284844 0.99328
0.0350422 0.0518311 0.562562 -0.107775 0.0283067 0.993772
0.0356866 0.0518274 0.562622 -0.104664 0.0297713 0.994062
0.0363504 0.0518514 0.562699 -0.102732 0.0300315 0.994256
0.0369977 0.0518516 0.562759 -0.10249 0.0304617 0.994268
0.0376543 0.0518645 0.562827 -0.10349 0.0293573 0.994197
0.0383057 0.0518699 0.56289 -0.105206 0.0307692 0.993974
0.0389611 0.0518805 0.562963 -0.107125 0.0318719 0.993735
0.039606 0.0518771 0.563031 -0.107386 0.0342881 0.993626
0.0402573 0.0518819 0.5631 -0.106439 0.0338844 0.993742
0.0409124 0.0518915 0.563168 -0.104981 0.0365381 0.993803
0.0415616 0.0518933 0.56324 -0.103869 0.036936 0.993905
0.0422068 0.0518902 0.563307 -0.102402 0.0356355 0.994105
0.0428703 0.0519093 0.563371 -0.1009 0.0327145 0.994359
0.0435274 0.0519202 0.563433 -0.100983 0.0310845 0.994402
0.0441674 0.0519108 0.563506 -0.100858 0.0310649 0.994416
0.0448191 0.0519151 0.563576 -0.101774 0.0286262 0.994396
0.0454882 0.0519391 0.563641 -0.100905 0.0270309 0.994529
0.0461388 0.0519417 0.563703 -0.0993762 0.0284605 0.994643
0.046797 0.0519527 0.56377 -0.0993866 0.0303737 0.994585
0.0474397 0.0519464 0.563835 -0.100298 0.0313184 0.994464
0.0481018 0.0519611 0.563899 -0.101494 0.0380432 0.994109
0.0487485 0.0519591 0.563968 -0.102159 0.0413014 0.99391
0.0494032 0.0519657 0.564036 -0.103005 0.0481809 0.993513
0.0500656 0.0519799 0.564112 -0.100208 0.0547396 0.99346
0.050722 0.0519877 0.564186 -0.0942538 0.061824 0.993627
0.0513672 0.051984 0.564258 -0.089224 0.0663015 0.993802
0.0520212 0.051989 0.564313 -0.085192 0.0744488 0.993579
0.0526836 0.0520023 0.564363 -0.0785759 0.100569 0.991822
0.0533441 0.0520135 0.564421 -0.0803683 0.115067 0.990101
0.0539805 0.0520011 0.564464 -0.0829435 0.13812 0.986936
0.0546577 0.0520279 0.564531 -0.0915935 0.139411 0.985989
0.055295 0.0520165 0.564573 -0.0882725 0.15866 0.983379
0.0559588 0.05203 0.564642 -0.10547 0.168142 0.980104
0.0566109 0.0520325 0.564695 -0.0830785 0.142715 0.986271
0.0572862 0.0520559 0.564768 -0.0875914 0.147846 0.985124
0.057953 0.0520712 0.564855 -0.0778986 0.14862 0.985821
0.0586062 0.0520741 0.564905 -0.0359669 0.184418 0.98219
0.0592667 0.0520834 0.564923 0.0142398 -0.208598 -0.977898
0.0598913 0.0520611 0.564906 -0.0135799 -0.203339 -0.979014
0.0604467 0.0519799 0.564821 -0.0592495 -0.187508 -0.980475
0.0610522 0.0519431 0.564607 -0.0224882 -0.194783 -0.980589
-0.0400546 0.051707 0.554372 0.0924559 -0.0114404 -0.995651
-0.0394208 0.0517118 0.554428 -0.096275 0.0139986 0.995256
-0.0387909 0.0517219 0.554477 -0.102328 0.0173337 0.9946
-0.0381639 0.0517363 0.554539 -0.106247 0.0217582 0.994102
-0.0375323 0.0517448 0.554616 -0.111643 0.026024 0.993408
-0.0368957 0.0517468 0.5547 -0.113678 0.0272844 0.993143
-0.0362639 0.0517555 0.554774 -0.108244 0.0261393 0.993781
-0.0356339 0.0517671 0.554839 -0.0917093 0.0223737 0.995534
-0.0349956 0.051767 0.554903 -0.0630193 0.0136865 0.997918
-0.034363 0.0517755 0.554935 -0.0254583 0.00216698 0.999674
-0.0337296 0.0517829 0.554926 0.0138937 -0.0190524 0.999722
-0.0330987 0.0517946 0.554896 0.0309118 -0.0283509 0.99912
-0.0324614 0.0517967 0.554876 -0.0450686 0.0359088 -0.998338
-0.0318031 0.0517644 0.554811 -0.0518018 0.0419128 -0.997777
0.0149284 0.0522747 0.560459 0.0660591 -0.0233952 -0.997541
0.0155749 0.0522816 0.560487 0.0676291 -0.0232543 -0.997439
0.0162196 0.0522819 0.560519 -0.0700767 0.0233685 0.997268
0.0168662 0.0522884 0.560563 -0.0796464 0.0241982 0.996529
0.0175146 0.0522998 0.560622 -0.0917438 0.0237988 0.995498
0.0181624 0.0523084 0.560689 -0.0994122 0.0216739 0.99481
0.0188083 0.0523114 0.560756 -0.10178 0.0192013 0.994622
0.019457 0.0523215 0.560822 -0.100345 0.0145147 0.994847
0.0201076 0.0523359 0.560889 -0.0963264 0.00972704 0.995302
0.0207464 0.0523199 0.560947 -0.0963088 0.00512 0.995338
0.0213993 0.0523392 0.561006 -0.0984656 0.00265654 0.995137
0.0220516 0.0523559 0.561066 -0.100505 -0.00176784 0.994935
0.0226919 0.0523441 0.561152 -0.100999 -0.00584983 0.994869
0.0233417 0.0523541 0.561215 -0.0957156 -0.00435352 0.995399
0.0239896 0.0523594 0.561275 0.0912093 -0.000525407 -0.995832
0.0246413 0.0523726 0.561322 0.0920982 -0.00219239 -0.995748
0.0278859 0.0524033 0.561681 0.121201 -0.00722222 -0.992602
0.0285344 0.0524079 0.561778 0.118882 -0.0110513 -0.992847
0.0291826 0.0524117 0.561854 0.115622 -0.0144056 -0.993189
0.0298409 0.052433 0.561926 0.114139 -0.0177511 -0.993306
0.0304861 0.0524309 0.562004 0.111762 -0.0203686 -0.993526
0.0311362 0.0524371 0.562076 0.11409 -0.0221252 -0.993224
0.0317868 0.0524441 0.56215 -0.117635 0.024389 0.992757
0.0324293 0.0524374 0.562228 -0.118956 0.0262551 0.992552
0.0330883 0.0524574 0.562314 -0.118611 0.0275098 0.99256
0.0337379 0.0524619 0.56239 -0.116204 0.0287922 0.992808
0.034391 0.0524715 0.562464 -0.112283 0.0291637 0.993248
0.0350542 0.052496 0.562536 -0.107111 0.0301586 0.99379
0.0356929 0.0524836 0.56261 -0.104069 0.0311126 0.994083
0.0363371 0.0524794 0.562677 -0.102508 0.0312299 0.994242
0.0369959 0.0524963 0.562739 -0.10233 0.0312772 0.994259
0.0376508 0.052507 0.562802 -0.103432 0.0312418 0.994146
0.0382975 0.0525061 0.56287 -0.1051 0.0309532 0.99398
0.0389451 0.0525066 0.562943 -0.106701 0.0311014 0.993805
0.039599 0.0525154 0.563014 -0.106712 0.0316577 0.993786
0.0402593 0.0525321 0.563081 -0.106474 0.0320304 0.993799
0.0409102 0.0525363 0.563149 -0.10515 0.030522 0.993988
0.0415588 0.0525374 0.563221 -0.103954 0.0312865 0.99409
0.0422124 0.0525449 0.563293 -0.10314 0.0287544 0.994251
0.042869 0.0525556 0.563351 -0.102598 0.0291055 0.994297
0.04352 0.0525594 0.563419 -0.102235 0.0285066 0.994352
0.0441731 0.0525655 0.563487 -0.101942 0.0280595 0.994395
0.0448228 0.0525674 0.563556 -0.101724 0.0282353 0.994412
0.0454808 0.0525789 0.563621 -0.0996394 0.0300849 0.994569
0.0461332 0.0525837 0.563686 -0.0984659 0.0327504 0.994601
0.0467975 0.0526017 0.563756 -0.0947553 0.0442782 0.994515
0.0474403 0.0525954 0.56382 -0.0957074 0.0434907 0.994459
0.0480878 0.0525944 0.563886 -0.0944279 0.0506871 0.994241
0.0487541 0.0526137 0.56395 -0.0938014 0.0570725 0.993954
0.0493999 0.0526107 0.564017 -0.0953406 0.0664926 0.993221
0.0500619 0.0526249 0.564079 -0.0910524 0.0826511 0.99241
0.050719 0.0526335 0.564143 -0.0835624 0.105432 0.990909
0.0513727 0.0526385 0.564206 -0.074459 0.137098 0.987755
0.0520246 0.0526415 0.564253 -0.0731266 0.150449 0.98591
0.052678 0.0526459 0.564282 -0.0534171 0.168685 0.984222
0.0533361 0.0526548 0.564329 -0.0568008 0.189609 0.980215
0.0539804 0.0526501 0.564342 -0.0799577 0.158915 0.984049
0.0546448 0.0526649 0.564412 -0.0698781 0.195242 0.978263
0.0553033 0.0526737 0.564494 -0.101742 0.19356 0.975799
0.0559702 0.0526902 0.564586 -0.0833282 0.208921 0.974376
0.0566211 0.0526914 0.564598 -0.0829373 0.202155 0.975835
0.0572705 0.0526912 0.564683 0.0996931 -0.204138 -0.973853
0.0578215 0.0526016 0.564686 0.07735 -0.16903 -0.982571
0.0584717 0.0526031 0.564723 0.0291199 -0.202674 -0.978813
0.0592704 0.0527367 0.564826 0.00879156 -0.214898 -0.976597
0.0598857 0.052706 0.56481 -0.024914 -0.216608 -0.975941
-0.039425 0.0523549 0.554422 0.0902237 -0.0127438 -0.99584
-0.0387895 0.0523576 0.554473 -0.0949416 0.0130825 0.995397
-0.038156 0.0523633 0.554531 -0.102087 0.0184663 0.994604
-0.0375194 0.0523648 0.554602 -0.11034 0.0251701 0.993575
-0.0368896 0.0523761 0.554681 -0.112979 0.0287049 0.993183
-0.0362646 0.0523946 0.554758 -0.106818 0.0295802 0.993838
-0.0356265 0.0523945 0.554826 -0.0908906 0.0260223 0.995521
-0.0349959 0.0524057 0.554888 -0.0638882 0.0183221 0.997789
-0.0343621 0.0524125 0.554934 -0.0429908 0.00999588 0.999025
-0.0337222 0.0524098 0.554945 -0.000347452 -0.00933618 0.999956
-0.0330945 0.0524266 0.554916 0.0168207 -0.0216 0.999625
-0.0324553 0.0524254 0.554901 0.0319408 -0.0302598 0.999032
-0.0317332 0.0522874 0.554809 -0.0506482 0.0373298 -0.998019
0.0155746 0.052925 0.560468 0.0680617 -0.0237439 -0.997399
0.0162241 0.0529413 0.560504 -0.0742148 0.0241156 0.996951
0.0168659 0.052932 0.560547 -0.0823687 0.021354 0.996373
0.017514 0.0529426 0.560607 -0.0930707 0.0224138 0.995407
0.0181614 0.0529505 0.560674 -0.1012 0.0209401 0.994646
0.0188037 0.0529432 0.560747 -0.104862 0.0174735 0.994333
0.0194541 0.0529586 0.560816 -0.103726 0.0143523 0.994502
0.0201012 0.0529644 0.560882 -0.101429 0.0109768 0.994782
0.0207549 0.0529866 0.560943 -0.0997508 0.0079629 0.994981
0.0213967 0.0529779 0.561006 -0.100838 0.0041532 0.994894
0.0220466 0.0529894 0.561079 -0.103303 0.00262784 0.994647
0.0226926 0.0529911 0.561144 -0.101679 0.00114961 0.994817
0.0233447 0.0530064 0.561221 -0.094795 0.00375505 0.99549
0.0239971 0.0530217 0.561285 -0.0899997 0.00457822 0.995931
0.0246387 0.0530127 0.561333 -0.0913617 0.00559838 0.995802
0.0252869 0.0530183 0.561369 0.0966646 -0.00718231 -0.995291
0.0259203 0.0529931 0.561439 0.105291 -0.00778729 -0.994411
0.0265486 0.0529592 0.561515 0.112704 -0.00854589 -0.993592
0.0272352 0.0530402 0.561602 0.121432 -0.00553368 -0.992584
0.0278818 0.0530416 0.561679 0.120713 -0.00851367 -0.992651
0.028532 0.0530495 0.56178 0.118632 -0.0100791 -0.992887
0.0291837 0.0530598 0.561852 -0.114994 0.0138004 0.99327
0.0298343 0.0530676 0.561919 -0.112203 0.0182574 0.993518
0.0304786 0.0530643 0.561984 -0.111047 0.0199431 0.993615
0.0311369 0.0530849 0.562063 -0.114134 0.0216846 0.993229
0.0317863 0.0530898 0.562138 -0.116318 0.0227108 0.992952
0.032436 0.053095 0.562212 -0.118193 0.0244929 0.992689
0.033092 0.0531101 0.562291 -0.116795 0.0255729 0.992827
0.0337382 0.0531091 0.56237 -0.114901 0.0277126 0.99299
0.0344001 0.0531325 0.562446 -0.110766 0.0302583 0.993386
0.0350419 0.0531245 0.562509 -0.107055 0.0316453 0.993749
0.0356978 0.0531379 0.562583 -0.103927 0.032181 0.994064
0.0363353 0.0531238 0.562648 -0.102436 0.0317886 0.994232
0.0369979 0.0531463 0.562719 -0.102769 0.0313254 0.994212
0.0376393 0.053138 0.56278 -0.103782 0.0315931 0.994098
0.0382992 0.0531559 0.562854 -0.106148 0.0304366 0.993884
0.0389565 0.0531694 0.562923 -0.106663 0.0290322 0.993871
0.0395986 0.0531621 0.562994 -0.106648 0.0291247 0.99387
0.040256 0.0531753 0.563062 -0.105892 0.0287499 0.993962
0.0409111 0.0531852 0.563128 -0.106298 0.0287328 0.993919
0.0415651 0.0531932 0.563201 -0.104833 0.0298405 0.994042
0.0422094 0.0531888 0.563269 -0.10261 0.0295888 0.994281
0.0428749 0.0532109 0.563336 -0.101888 0.0314553 0.994298
0.043515 0.0532013 0.5634 -0.101385 0.0324038 0.994319
0.0441726 0.0532129 0.563468 -0.100151 0.0409369 0.99413
0.044831 0.0532252 0.563539 -0.0996928 0.0396783 0.994227
0.0454831 0.0532298 0.563608 -0.0961224 0.0499494 0.994115
0.046136 0.0532352 0.563679 -0.0920148 0.0510048 0.99445
0.046796 0.0532485 0.563738 -0.0893355 0.0568585 0.994377
0.0474408 0.0532444 0.563799 -0.0892481 0.0640011 0.993951
0.0480975 0.0532535 0.563861 -0.0853694 0.0846494 0.992747
0.0487479 0.0532556 0.563915 -0.0868962 0.0864809 0.992457
0.0493947 0.0532537 0.563968 -0.07544 0.116959 0.990267
0.05006 0.0532716 0.56402 -0.0723176 0.141321 0.987319
0.0507193 0.0532826 0.564079 -0.0456537 0.194646 0.979811
0.0513774 0.0532923 0.564096 -0.0652704 0.215123 0.974403
0.0520253 0.0532911 0.564139 -0.0397838 0.200711 0.978842
0.0526838 0.0533008 0.564172 -0.0415012 0.217149 0.975256
0.053348 0.0533158 0.564244 -0.0706655 0.221872 0.972512
0.0540065 0.053325 0.564284 -0.0440018 0.239043 0.970011
0.0546771 0.0533457 0.564345 0.0760228 -0.257318 -0.963332
0.0552935 0.0533136 0.564403 0.0896489 -0.222074 -0.9709
0.0558397 0.0532154 0.564322 0.0817445 -0.242913 -0.966598
0.0566428 0.0533615 0.564538 0.0839686 -0.234356 -0.968518
0.0572595 0.0533306 0.564553 0.0869305 -0.203583 -0.975191
0.0576497 0.0530918 0.564188 0.0853527 -0.215417 -0.972785
-0.0394218 0.0529881 0.554422 0.0874519 -0.011457 -0.996103
-0.0387908 0.0529971 0.554469 -0.0910731 0.013506 0.995753
-0.0381631 0.0530108 0.554518 -0.0931386 0.0164301 0.995518
-0.0375284 0.0530151 0.554588 -0.103797 0.0223517 0.994347
-0.0368967 0.053024 0.554661 -0.107419 0.0280016 0.993819
-0.0362549 0.0530184 0.554736 -0.108251 0.031773 0.993616
-0.0356277 0.0530343 0.554801 -0.0986574 0.0314133 0.994626
-0.0349943 0.0530415 0.554865 -0.0794404 0.0266339 0.996484
-0.0343546 0.0530391 0.554922 -0.0487709 0.0119644 0.998738
-0.0337135 0.0530344 0.554942 -0.0197231 -0.00374784 0.999798
-0.0330868 0.0530527 0.554931 -0.00111873 -0.0202694 0.999794
-0.0324458 0.0530483 0.554957 0.0256139 -0.0297346 0.99923
-0.0317659 0.0529788 0.554862 -0.0357707 0.0282479 -0.998961
0.0155763 0.0535754 0.560457 0.074193 -0.0308749 -0.996766
0.0162224 0.0535804 0.560489 -0.0788406 0.0282887 0.996486
0.0168693 0.0535874 0.560534 -0.0839 0.0256583 0.996144
0.0175139 0.0535871 0.560595 -0.0942364 0.0234653 0.995273
0.0181617 0.053596 0.560665 -0.103672 0.0215103 0.994379
0.0188132 0.0536151 0.560731 -0.107524 0.0187895 0.994025
0.019457 0.0536115 0.560809 -0.106775 0.0165786 0.994145
0.0201004 0.0536071 0.560881 -0.104803 0.0142392 0.994391
0.0207479 0.0536137 0.560944 -0.102852 0.00923174 0.994654
0.0213981 0.0536266 0.561004 -0.103022 0.00896471 0.994639
0.0220468 0.0536351 0.561082 -0.102691 0.0084516 0.994677
0.0226909 0.0536323 0.561154 -0.100293 0.00765066 0.994929
0.0233449 0.0536522 0.561212 -0.094871 0.00839136 0.995454
0.0239885 0.0536481 0.561268 -0.089818 0.0091518 0.995916
0.0246352 0.0536508 0.561317 -0.0912706 0.00924702 0.995783
0.0252953 0.0536818 0.561372 -0.0989927 0.00724624 0.995062
0.0259388 0.0536769 0.561439 -0.105985 0.00526827 0.994354
0.0265904 0.0536885 0.561517 -0.114891 0.00410026 0.99337
0.0272413 0.0536983 0.561596 -0.121146 0.00459111 0.992624
0.0278934 0.0537099 0.561677 -0.119842 0.00750988 0.992765
0.0285347 0.0537006 0.561763 -0.116255 0.0101806 0.993167
0.029174 0.0536881 0.561842 -0.113057 0.0134321 0.993498
0.0298331 0.0537118 0.561908 -0.109629 0.0174047 0.99382
0.0304863 0.053724 0.561975 -0.109786 0.0187311 0.993779
0.0311359 0.0537296 0.562048 -0.112275 0.0199625 0.993477
0.0317793 0.0537244 0.562123 -0.114884 0.0219582 0.993136
0.0324369 0.053743 0.562196 -0.116161 0.0223552 0.992979
0.033084 0.0537438 0.562272 -0.115732 0.0250956 0.992963
0.0337342 0.0537495 0.56235 -0.113057 0.0274938 0.993208
0.0343828 0.0537524 0.562425 -0.10923 0.0303961 0.993552
0.0350363 0.0537628 0.562494 -0.105933 0.0319974 0.993858
0.0356892 0.0537721 0.562564 -0.10409 0.0324093 0.99404
0.0363424 0.0537813 0.562625 -0.102499 0.0338237 0.994158
0.0370012 0.0537983 0.562694 -0.102528 0.033644 0.994161
0.0376455 0.0537941 0.562761 -0.104845 0.0326707 0.993952
0.038295 0.0537972 0.562831 -0.10706 0.0308541 0.993774
0.038948 0.0538051 0.562903 -0.107716 0.0305435 0.993712
0.0396011 0.053813 0.562975 -0.10664 0.0303587 0.993834
0.0402587 0.0538265 0.563042 -0.104243 0.033897 0.993974
0.0409119 0.0538339 0.56311 -0.105179 0.0348307 0.993843
0.0415629 0.0538382 0.563185 -0.104323 0.0380856 0.993814
0.0422086 0.0538356 0.563253 -0.101503 0.0398296 0.994038
0.0428724 0.0538557 0.56332 -0.0978591 0.0501015 0.993938
0.0435179 0.0538527 0.56339 -0.0969427 0.0484574 0.99411
0.0441723 0.0538605 0.563464 -0.0962536 0.0523195 0.993981
0.0448226 0.0538633 0.563527 -0.092967 0.0595059 0.993889
0.0454763 0.05387 0.563582 -0.0894187 0.0663975 0.993778
0.0461333 0.0538803 0.563643 -0.0824354 0.0870227 0.99279
0.0467799 0.0538785 0.563696 -0.0798445 0.10552 0.991207
0.0474386 0.0538903 0.563751 -0.0792692 0.115801 0.990104
0.0480947 0.0538989 0.563777 -0.0712679 0.1294 0.989028
0.048746 0.0539021 0.563851 -0.0662958 0.149367 0.986557
0.0493965 0.0539043 0.563875 -0.0684629 0.174382 0.982295
0.050054 0.0539139 0.563923 -0.0170905 0.209574 0.977643
0.0507143 0.0539262 0.563954 -0.0356485 0.215457 0.975862
0.0513806 0.0539446 0.564047 -0.0360404 0.262834 0.964168
0.0520473 0.0539629 0.564056 -0.0314347 0.266439 0.963339
0.0526802 0.0539461 0.564079 -0.0484796 0.29186 0.955232
0.0532406 0.0538565 0.56398 0.0640827 -0.251306 -0.965784
0.053879 0.053847 0.564029 0.0375806 -0.288075 -0.95687
0.0544535 0.0537745 0.563781 0.0542615 -0.264884 -0.962752
0.0552739 0.0539437 0.564282 0.067208 -0.276617 -0.958627
0.0556508 0.0536812 0.563626 0.078102 -0.288926 -0.95416
-0.039424 0.0536286 0.554426 0.0834226 -0.00995995 -0.996464
-0.038789 0.0536322 0.554462 -0.0871232 0.0161522 0.996067
-0.0381622 0.0536474 0.554508 -0.0876095 0.0180141 0.995992
-0.0375273 0.0536515 0.554567 -0.0963003 0.0236148 0.995072
-0.0368915 0.0536544 0.554641 -0.102202 0.0279765 0.99437
-0.0362586 0.0536619 0.554712 -0.106601 0.0317789 0.993794
-0.035624 0.0536669 0.554773 -0.101749 0.0320399 0.994294
-0.0349928 0.0536772 0.554837 -0.0879552 0.0266933 0.995767
-0.0343545 0.0536771 0.554904 -0.0653972 0.0147109 0.997751
-0.0337203 0.0536833 0.554939 -0.0367562 0.00125257 0.999323
-0.0330894 0.0536953 0.55495 -0.00958631 -0.0180962 0.99979
-0.0324501 0.0536936 0.554943 0.0163435 -0.0183583 0.999698
-0.0318113 0.0536928 0.554922 -0.0348874 0.0210682 -0.999169
-0.0312368 0.0538028 0.554981 -0.0579561 0.0148972 -0.998208
0.0155715 0.0542031 0.560451 0.0829435 -0.0369223 -0.99587
0.0162183 0.0542112 0.560476 0.0853896 -0.0320413 -0.995832
0.0168646 0.054217 0.560521 -0.0873888 0.0294655 0.995738
0.0175087 0.0542156 0.560584 -0.0945626 0.0249614 0.995206
0.018161 0.0542388 0.560657 -0.10564 0.024418 0.994105
0.0188105 0.0542524 0.560719 -0.109885 0.0228047 0.993683
0.019458 0.0542594 0.560793 -0.108915 0.020871 0.993832
0.0200979 0.0542454 0.560877 -0.106687 0.0178438 0.994133
0.0207459 0.0542537 0.560938 -0.105276 0.0156979 0.994319
0.0214025 0.0542831 0.561003 -0.103939 0.0146522 0.994476
0.0220446 0.0542749 0.561073 -0.10245 0.0130901 0.994652
0.022689 0.0542729 0.561141 -0.100567 0.0135988 0.994837
0.0233422 0.0542915 0.561202 -0.095078 0.0154845 0.995349
0.0239905 0.0542981 0.561262 -0.0908881 0.0136527 0.995768
0.0246379 0.0543022 0.561317 -0.0930087 0.0103919 0.995611
0.0252851 0.0543057 0.561372 -0.100012 0.00716619 0.99496
0.0259344 0.0543134 0.561431 -0.108518 0.00508733 0.994081
0.0265815 0.0543162 0.561515 -0.114782 0.00253521 0.993387
0.0272317 0.0543251 0.561597 -0.119752 0.00485163 0.992792
0.0278826 0.0543349 0.561677 -0.119046 0.00774048 0.992859
0.0285341 0.0543455 0.56175 -0.113925 0.0114349 0.993424
0.029181 0.0543471 0.56183 -0.109852 0.0149211 0.993836
0.0298251 0.0543434 0.561891 -0.10761 0.0177523 0.994035
0.0304822 0.054363 0.561958 -0.109026 0.0186363 0.993864
0.0311305 0.0543666 0.562036 -0.111396 0.0194488 0.993586
0.0317783 0.0543692 0.562114 -0.114356 0.0202507 0.993233
0.0324339 0.0543845 0.562188 -0.114995 0.0225671 0.99311
0.0330847 0.0543916 0.562259 -0.113469 0.0246824 0.993235
0.033737 0.0544008 0.562341 -0.10947 0.0270461 0.993622
0.0343848 0.0544024 0.56241 -0.106515 0.0310742 0.993825
0.0350383 0.0544129 0.56248 -0.103086 0.034654 0.994069
0.0356888 0.0544184 0.562539 -0.102321 0.0358107 0.994107
0.0363355 0.054418 0.562612 -0.102157 0.0377917 0.99405
0.0369851 0.0544219 0.562673 -0.102854 0.0370835 0.994005
0.0376483 0.0544453 0.56274 -0.105853 0.03977 0.993586
0.0382987 0.0544498 0.562809 -0.105801 0.0412927 0.99353
0.0389456 0.0544491 0.562887 -0.107941 0.0386849 0.993404
0.0395987 0.0544572 0.562957 -0.105646 0.0394752 0.99362
0.0402566 0.0544713 0.563023 -0.104493 0.0449399 0.99351
0.0409048 0.0544721 0.563098 -0.101017 0.0459668 0.993822
0.0415523 0.0544721 0.563168 -0.098829 0.0508381 0.993805
0.0422145 0.0544909 0.563243 -0.095169 0.0581825 0.993759
0.0428614 0.0544897 0.563295 -0.0935799 0.0623506 0.993657
0.0435208 0.0545042 0.563356 -0.0903242 0.0830296 0.992445
0.044177 0.0545144 0.563419 -0.0883243 0.0922114 0.991814
0.044818 0.0545058 0.56348 -0.0814934 0.104722 0.991157
0.0454848 0.0545283 0.563529 -0.0779422 0.114521 0.990358
0.0461282 0.0545226 0.563576 -0.0706768 0.127588 0.989306
0.0467797 0.0545264 0.563592 -0.0682325 0.118347 0.990625
0.0474334 0.0545327 0.563653 -0.0560135 0.146456 0.98763
0.0480932 0.0545458 0.563704 -0.0528363 0.1651 0.984861
0.0487602 0.0545664 0.563774 -0.056051 0.180356 0.982003
0.0494101 0.0545678 0.563804 -0.0109526 0.217662 0.975963
0.0500869 0.0545984 0.563863 0.0147769 -0.261083 -0.965203
0.050692 0.054551 0.563862 0.0330358 -0.240228 -0.970154
0.0512427 0.0544471 0.563715 0.014363 -0.282802 -0.959071
0.0518475 0.0544025 0.563543 0.020161 -0.319278 -0.947447
0.0526679 0.0545825 0.563918 0.0166801 -0.296357 -0.954931
0.0530894 0.0543497 0.563406 0.0533992 -0.290966 -0.955242
-0.038783 0.0542614 0.554462 -0.0799927 0.0151598 0.99668
-0.0381612 0.0542837 0.554507 -0.085587 0.0202833 0.996124
-0.0375242 0.0542848 0.554554 -0.0941986 0.022929 0.995289
-0.0368965 0.0542996 0.554616 -0.0978782 0.0270819 0.99483
-0.0362576 0.0542982 0.554689 -0.103032 0.029804 0.994231
-0.0356264 0.0543086 0.554754 -0.103562 0.0296731 0.99418
-0.034995 0.0543188 0.554822 -0.0953668 0.0253116 0.99512
-0.0343551 0.0543162 0.554881 -0.0722572 0.0143423 0.997283
-0.0337204 0.0543216 0.554932 -0.0507979 0.00443843 0.998699
-0.0330894 0.0543336 0.554959 -0.0279805 -0.00583112 0.999591
-0.0324565 0.0543426 0.554952 0.00872155 -0.00918953 0.99992
-0.031823 0.0543512 0.554951 0.0482308 -0.00534252 0.998822
-0.0310832 0.0541747 0.55477 -0.0635883 0.0128481 -0.997894
0.0155715 0.0548478 0.560407 0.0960314 -0.0404171 -0.994557
0.0162207 0.0548638 0.560454 -0.0924746 0.0379945 0.99499
0.0168646 0.0548617 0.560506 -0.0915711 0.0330034 0.995251
0.0175104 0.0548657 0.560566 -0.0987425 0.0284631 0.994706
0.0181607 0.0548827 0.560633 -0.106307 0.0269688 0.993968
0.0188085 0.0548916 0.560705 -0.110173 0.0266497 0.993555
0.0194557 0.0548979 0.560784 -0.110904 0.0266198 0.993475
0.0201032 0.0549049 0.560855 -0.109297 0.0251273 0.993691
0.0207521 0.054915 0.560922 -0.107403 0.0238347 0.99393
0.0214039 0.0549319 0.56099 -0.104885 0.0218033 0.994245
0.0220461 0.054924 0.561057 -0.103253 0.0211404 0.99443
0.0226954 0.0549336 0.561129 -0.099893 0.0196867 0.994803
0.023344 0.0549412 0.561186 -0.0958119 0.0189326 0.995219
0.0239886 0.0549392 0.561244 -0.0946772 0.0168369 0.995366
0.0246346 0.0549403 0.561309 -0.0968148 0.0132881 0.995214
0.0252851 0.0549512 0.561374 -0.103913 0.00890909 0.994547
0.0259353 0.0549609 0.561446 -0.110482 0.00696769 0.993854
0.0265802 0.0549592 0.56152 -0.114777 0.00577128 0.993375
0.0272317 0.054971 0.561602 -0.116479 0.00723058 0.993167
0.0278882 0.054992 0.561674 -0.114799 0.0107355 0.993331
0.0285406 0.0550041 0.561744 -0.110876 0.0146378 0.993726
0.0291867 0.055004 0.561814 -0.107008 0.0170633 0.994112
0.0298353 0.0550082 0.561881 -0.106076 0.0189187 0.994178
0.0304867 0.0550175 0.561952 -0.107655 0.0208987 0.993969
0.0311331 0.0550176 0.562021 -0.111057 0.0215361 0.993581
0.0317844 0.055026 0.562098 -0.113102 0.0234133 0.993307
0.032436 0.0550346 0.562176 -0.112956 0.0235898 0.99332
0.0330799 0.0550303 0.562247 -0.110431 0.0268236 0.993522
0.0337395 0.0550515 0.56232 -0.105738 0.0320241 0.993878
0.0343825 0.0550455 0.56239 -0.10247 0.0344248 0.99414
0.0350391 0.0550609 0.562453 -0.100261 0.0387539 0.994206
0.0357006 0.0550836 0.562517 -0.100297 0.0444832 0.993963
0.0363367 0.0550668 0.562591 -0.100509 0.045414 0.993899
0.0369847 0.0550682 0.562661 -0.102125 0.0495443 0.993537
0.0376471 0.0550908 0.562724 -0.103738 0.0562758 0.993011
0.0382985 0.0550968 0.562792 -0.105609 0.0529011 0.993
0.03895 0.0551027 0.562871 -0.105422 0.0534055 0.992992
0.0395964 0.0551013 0.562942 -0.103368 0.0543905 0.993155
0.0402466 0.0551052 0.563007 -0.0995239 0.057363 0.99338
0.0409009 0.0551145 0.563065 -0.0948282 0.0688707 0.993108
0.0415611 0.0551313 0.563123 -0.091013 0.0777562 0.992809
0.0422091 0.0551317 0.563192 -0.0844271 0.0935739 0.992026
0.0428523 0.0551258 0.563247 -0.0815809 0.103647 0.991263
0.0435232 0.0551553 0.563291 -0.0816295 0.114376 0.990078
0.0441704 0.0551542 0.56334 -0.0720371 0.118787 0.990303
0.0448106 0.0551446 0.563376 -0.0752377 0.12647 0.989113
0.0454807 0.0551717 0.563433 -0.0650523 0.136482 0.988504
0.0461357 0.0551797 0.563488 -0.0681458 0.138321 0.98804
0.0467945 0.0551921 0.56356 -0.0444482 0.163665 0.985514
0.0474563 0.0552077 0.563588 0.0534845 -0.164252 -0.984967
0.0480916 0.0551924 0.563631 0.0461057 -0.182872 -0.982055
0.0486562 0.0550974 0.563554 0.0565939 -0.196946 -0.97878
0.0494162 0.0552233 0.563749 0.00159798 -0.260586 -0.965449
0.0498924 0.055033 0.563328 -0.00181274 -0.265119 -0.964214
0.0506732 0.0551791 0.563708 -0.00164212 -0.294305 -0.95571
-0.0387768 0.0548901 0.554458 -0.0771544 0.0177134 0.996862
-0.0381485 0.0549032 0.554496 -0.0809246 0.0182442 0.996553
-0.0375214 0.0549186 0.554543 -0.0883176 0.0231343 0.995824
-0.0368915 0.0549302 0.554602 -0.0966993 0.027019 0.994947
-0.0362562 0.0549341 0.554669 -0.104525 0.0286048 0.994111
-0.0356179 0.0549336 0.554738 -0.106431 0.0271781 0.993949
-0.034981 0.0549351 0.554807 -0.0984478 0.0219961 0.994899
-0.0343554 0.0549548 0.554873 -0.0810186 0.0147451 0.996604
-0.0337244 0.0549665 0.554933 -0.0571649 0.00589428 0.998347
-0.0330866 0.0549673 0.554974 -0.0216923 -0.000288502 0.999765
-0.0324489 0.0549683 0.554947 0.00830791 -0.00186281 0.999964
-0.0318196 0.0549838 0.55498 0.0506535 -0.00121255 0.998716
-0.0311292 0.0548923 0.55485 -0.0629721 0.00493454 -0.998003
0.0155736 0.0554996 0.560362 0.104195 -0.0432158 -0.993618
0.0162213 0.0555104 0.560418 -0.0973927 0.0404844 0.994422
0.0168608 0.0554936 0.560478 -0.0965589 0.0353029 0.994701
0.0175127 0.0555175 0.560545 -0.102581 0.0307909 0.994248
0.0181649 0.0555403 0.560613 -0.107649 0.0292071 0.99376
0.0188056 0.0555278 0.560686 -0.110199 0.0288846 0.99349
0.0194507 0.0555288 0.560763 -0.110931 0.029569 0.993388
0.0201014 0.0555449 0.560837 -0.110482 0.0308423 0.993399
0.0207481 0.0555494 0.560906 -0.10893 0.0296998 0.993606
0.021398 0.055562 0.560974 -0.106902 0.0277385 0.993883
0.022047 0.0555717 0.561045 -0.104511 0.0261263 0.99418
0.0226891 0.0555638 0.561111 -0.101069 0.0229271 0.994615
0.0233374 0.055571 0.561172 -0.0982094 0.0202347 0.99496
0.0239918 0.0555922 0.561233 -0.0979938 0.0185443 0.995014
0.0246369 0.055591 0.561299 -0.100328 0.0131902 0.994867
0.0252801 0.055586 0.561369 -0.105327 0.0107307 0.99438
0.0259341 0.0556041 0.561443 -0.110872 0.0101385 0.993783
0.0265822 0.0556091 0.56152 -0.114544 0.0111523 0.993356
0.0272328 0.055619 0.561595 -0.114589 0.0134677 0.993322
0.0278823 0.0556263 0.56167 -0.11213 0.0162098 0.993561
0.0285261 0.0556222 0.561742 -0.107871 0.0185816 0.993991
0.0291783 0.055634 0.561808 -0.105025 0.0214519 0.994238
0.0298254 0.0556361 0.561873 -0.10416 0.022505 0.994306
0.0304757 0.0556438 0.561939 -0.105668 0.0245183 0.994099
0.031134 0.0556655 0.562011 -0.109013 0.0276865 0.993655
0.0317852 0.0556739 0.562081 -0.110818 0.0306691 0.993367
0.0324334 0.0556768 0.562159 -0.10972 0.0381958 0.993228
0.0330827 0.0556815 0.562231 -0.107865 0.0409166 0.993323
0.0337357 0.0556921 0.562299 -0.101463 0.0425903 0.993927
0.0343888 0.0557024 0.562362 -0.0965711 0.0490728 0.994116
0.0350383 0.0557067 0.56242 -0.0803955 0.0763148 0.993837
0.0356935 0.0557195 0.562488 -0.0894547 0.080439 0.992737
0.0363381 0.0557159 0.562552 -0.098189 0.0835583 0.991654
0.0369851 0.0557158 0.562619 -0.110497 0.0900026 0.989793
0.0376408 0.0557288 0.562685 -0.0960034 0.0933891 0.99099
0.0382989 0.0557447 0.562752 -0.110306 0.0976151 0.989092
0.0389444 0.0557421 0.562823 -0.104484 0.079107 0.991375
0.0395998 0.0557535 0.562897 -0.100852 0.0830981 0.991425
0.0402524 0.0557607 0.56296 -0.0955904 0.0858925 0.991708
0.0408973 0.0557572 0.563005 -0.0865358 0.0871667 0.992428
0.0415617 0.0557798 0.563067 -0.0755795 0.101368 0.991974
0.0422077 0.0557775 0.563104 -0.0715263 0.113779 0.990928
0.0428608 0.0557845 0.56315 -0.0733588 0.116217 0.990511
0.0435147 0.0557924 0.5632 -0.0676047 0.131615 0.988993
0.0441852 0.0558209 0.563285 -0.0718876 0.138024 0.987817
0.0448343 0.0558221 0.563341 0.0661398 -0.142809 -0.987538
0.0454983 0.0558415 0.563376 0.0587148 -0.157958 -0.985699
0.0461244 0.0558144 0.5634 0.0690969 -0.156948 -0.985187
0.0466863 0.0557115 0.563337 0.0446211 -0.175377 -0.98349
0.0472963 0.055668 0.56328 0.05406 -0.171559 -0.983689
0.0480823 0.05583 0.563536 0.0389459 -0.18432 -0.982094
0.0485257 0.0555952 0.56311 0.00117101 -0.227806 -0.973706
-0.0387909 0.0555477 0.554445 0.0730806 -0.0164185 -0.997191
-0.0381616 0.0555599 0.554478 -0.0796975 0.0199194 0.99662
-0.0375185 0.055552 0.554525 -0.0860492 0.0226149 0.996034
-0.0368787 0.0555487 0.554583 -0.0947627 0.0261389 0.995157
-0.0362572 0.0555735 0.554651 -0.104729 0.0270136 0.994134
-0.0356277 0.0555866 0.55472 -0.108968 0.0256924 0.993713
-0.0349838 0.0555775 0.554798 -0.104058 0.0218301 0.994332
-0.0343544 0.0555913 0.554863 -0.0945027 0.0183655 0.995355
-0.033724 0.0556042 0.554927 -0.0636288 0.00919404 0.997931
-0.0330903 0.0556117 0.554971 -0.0350291 0.00606102 0.999368
-0.0324469 0.0556032 0.554975 0.0149143 -0.00785201 0.999858
-0.03182 0.055623 0.554933 0.0469604 -0.00411684 0.998888
-0.031174 0.0556097 0.554876 -0.0614312 0.00332186 -0.998106
0.0149266 0.0561346 0.560249 0.114784 -0.0412459 -0.992534
0.0155723 0.0561393 0.560321 -0.107717 0.043242 0.993241
0.0162179 0.0561434 0.560387 -0.101783 0.0394959 0.994022
0.016866 0.0561556 0.560452 -0.103328 0.0339668 0.994067
0.0175125 0.0561616 0.560523 -0.105947 0.0304548 0.993905
0.0181547 0.0561539 0.560593 -0.108121 0.0294382 0.993702
0.0188073 0.0561778 0.560666 -0.109297 0.0294625 0.993572
0.0194528 0.0561796 0.560738 -0.110005 0.0310432 0.993446
0.0200966 0.0561767 0.560812 -0.110629 0.032685 0.993324
0.0207509 0.0562021 0.560885 -0.110002 0.0323649 0.993404
0.0213973 0.0562053 0.560956 -0.109345 0.0309077 0.993523
0.0220431 0.0562071 0.561029 -0.106859 0.0282048 0.993874
0.022691 0.0562137 0.561098 -0.10347 0.0248355 0.994322
0.0233392 0.0562207 0.561161 -0.100718 0.0219066 0.994674
0.0239866 0.0562254 0.56122 -0.100081 0.0192628 0.994793
0.0246387 0.0562407 0.561287 -0.102974 0.0174372 0.994531
0.0252858 0.056244 0.561355 -0.106602 0.0163575 0.994167
0.0259342 0.05625 0.561427 -0.110037 0.0169854 0.993782
0.0265832 0.056257 0.561498 -0.111329 0.0214949 0.993551
0.0272361 0.0562717 0.561576 -0.111275 0.0271796 0.993418
0.0278836 0.0562749 0.561654 -0.107643 0.0346625 0.993585
0.0285318 0.0562793 0.561727 -0.106768 0.033219 0.993729
0.0291846 0.0562923 0.56179 -0.10675 0.0391289 0.993516
0.0298322 0.0562951 0.561858 -0.105481 0.0378711 0.9937
0.0304772 0.0562928 0.561928 -0.104031 0.0341472 0.993988
0.0311294 0.0563036 0.561998 -0.104694 0.0403745 0.993685
0.0317858 0.0563215 0.562068 -0.107024 0.0497915 0.993009
0.0324371 0.0563299 0.562141 -0.105226 0.0542349 0.992968
0.0330844 0.056331 0.562217 -0.103573 0.0544342 0.993131
0.0337336 0.0563353 0.562285 -0.0975175 0.0596488 0.993445
0.0343909 0.0563527 0.562333 -0.0689651 0.0762866 0.994698
0.0350323 0.0563438 0.562398 -0.0726056 0.0787805 0.994244
0.0356824 0.0563492 0.562447 -0.0838739 0.0830422 0.99301
0.0363383 0.0563632 0.562494 -0.0951059 0.0898058 0.991408
0.0369881 0.0563674 0.56257 -0.0867996 0.12128 0.988816
0.0376354 0.0563678 0.562622 -0.112233 0.12571 0.985698
0.0382947 0.0563859 0.562692 -0.106434 0.118796 0.987198
0.038938 0.0563801 0.56275 -0.113552 0.110247 0.987396
0.0395942 0.0563929 0.562828 -0.122593 0.109245 0.986426
0.0402516 0.0564071 0.562885 -0.0882658 0.100618 0.991002
0.0409021 0.0564112 0.562939 -0.0789352 0.104876 0.991348
0.0415554 0.0564191 0.563005 -0.0685122 0.110409 0.991522
0.0422107 0.0564292 0.563055 -0.0648318 0.117332 0.990974
0.042885 0.0564641 0.563117 0.0648119 -0.127302 -0.989744
0.043507 0.0564302 0.56311 0.0622516 -0.14089 -0.988066
0.0440916 0.0563495 0.563087 0.0699571 -0.145883 -0.986825
0.0447193 0.0563254 0.563151 0.0674259 -0.148562 -0.986602
0.0453209 0.0562696 0.563077 0.0576228 -0.153167 -0.986519
0.0461095 0.0564442 0.563285 0.0388418 -0.179358 -0.983017
-0.0387832 0.0561742 0.554431 0.0712855 -0.014103 -0.997356
-0.0381588 0.0561935 0.554463 -0.0754736 0.019585 0.996955
-0.03752 0.0561919 0.55451 -0.0800156 0.0202146 0.996589
-0.0368835 0.0561938 0.554564 -0.0922647 0.0229051 0.995471
-0.0362554 0.0562087 0.554631 -0.101977 0.0244994 0.994485
-0.0356206 0.0562135 0.554704 -0.109914 0.0253814 0.993617
-0.0349864 0.0562196 0.55478 -0.107624 0.0238238 0.993906
-0.0343556 0.0562315 0.55485 -0.0994505 0.0211222 0.994818
-0.0337169 0.0562305 0.554917 -0.067103 0.0121148 0.997673
-0.0330883 0.0562468 0.554967 -0.0422878 0.0100395 0.999055
-0.0324496 0.056246 0.554966 -1.90602e-05 -0.00224311 0.999997
-0.0318185 0.0562588 0.554922 0.0466858 -0.00495646 0.998897
-0.0311779 0.056255 0.554889 -0.071085 0.0147326 -0.997361
0.0129865 0.0567483 0.559986 0.106427 -0.0262552 -0.993974
0.0136337 0.0567614 0.560068 0.112624 -0.0271033 -0.993268
0.0142746 0.0567487 0.560135 0.114998 -0.0322464 -0.992842
0.0149228 0.0567643 0.560219 -0.116043 0.0335619 0.992677
0.0155685 0.0567698 0.560302 -0.111822 0.0357518 0.993085
0.0162182 0.056789 0.560366 -0.110719 0.0326173 0.993316
0.0168684 0.0568083 0.560434 -0.107405 0.0298182 0.993768
0.0175113 0.0568023 0.560509 -0.107349 0.0273295 0.993846
0.0181552 0.0568001 0.560586 -0.107671 0.027461 0.993807
0.0188042 0.0568132 0.560645 -0.107885 0.029337 0.99373
0.0194504 0.0568174 0.560714 -0.108052 0.0317185 0.993639
0.0200996 0.0568298 0.560786 -0.109317 0.0324732 0.993476
0.0207484 0.0568403 0.560859 -0.110672 0.0326861 0.993319
0.0213938 0.0568412 0.56093 -0.110777 0.0312193 0.993355
0.022041 0.0568467 0.56101 -0.109822 0.0297612 0.993506
0.0226926 0.0568628 0.561079 -0.106673 0.0270472 0.993926
0.0233372 0.0568612 0.561147 -0.103719 0.0240127 0.994317
0.0239856 0.0568685 0.561213 -0.102713 0.0215808 0.994477
0.0246332 0.0568737 0.561276 -0.10439 0.0191752 0.994352
0.0252835 0.0568846 0.561344 -0.105675 0.0200206 0.994199
0.0259368 0.0569014 0.561417 -0.105754 0.0246611 0.994086
0.0265823 0.0569009 0.561489 -0.105492 0.0308881 0.99394
0.0272324 0.0569101 0.561564 -0.103773 0.0421838 0.993706
0.0278823 0.0569182 0.561638 -0.103213 0.0490367 0.99345
0.0285336 0.0569289 0.561706 -0.103713 0.0535071 0.993167
0.0291862 0.0569416 0.561767 -0.102625 0.0602969 0.992891
0.0298339 0.0569445 0.561837 -0.101466 0.0631958 0.99283
0.0304788 0.0569419 0.561905 -0.100297 0.0580532 0.993262
0.0311227 0.0569377 0.561961 -0.100968 0.062553 0.992921
0.0317824 0.056962 0.562026 -0.0894368 0.118443 0.988925
0.0324303 0.0569644 0.562103 -0.0993266 0.162465 0.981702
0.0330796 0.0569692 0.562173 -0.104517 0.117539 0.987553
0.0337275 0.0569717 0.562235 -0.0964901 0.0762777 0.992407
0.0343798 0.0569812 0.562291 -0.0647379 0.0895388 0.993877
0.0350308 0.0569882 0.562347 -0.0690842 0.0903285 0.993513
0.0356803 0.0569926 0.562402 -0.0804641 0.0898038 0.992704
0.0363361 0.0570067 0.562459 -0.0617741 0.103824 0.992675
0.0369897 0.057017 0.562489 -0.0842512 0.113238 0.989989
0.0376426 0.0570258 0.562555 -0.10238 0.121 0.987359
0.038291 0.0570276 0.562611 -0.101399 0.12217 0.987316
0.0389424 0.0570337 0.562699 -0.109675 0.127052 0.985814
0.0396086 0.0570611 0.562786 -0.10956 0.122511 0.986401
0.0402553 0.0570597 0.562852 0.110524 -0.122417 -0.986306
0.040911 0.0570712 0.562883 0.07742 -0.120029 -0.989747
0.0415379 0.0570426 0.562917 0.0716298 -0.120946 -0.990071
0.0421067 0.0569363 0.562926 0.0644526 -0.123395 -0.990262
0.0427238 0.0568977 0.562878 0.0633481 -0.126064 -0.989997
0.0435026 0.0570722 0.563004 0.0543716 -0.141284 -0.988475
-0.0381447 0.0568102 0.554463 -0.0701768 0.0150219 0.997421
-0.0375152 0.0568224 0.554499 -0.082396 0.0167408 0.996459
-0.0368876 0.0568378 0.554545 -0.0906377 0.0194139 0.995695
